ply
format ascii 1.0
comment PCL generated
element vertex 1367
property float x
property float y
property float z
element camera 0
property float view_px
property float view_py
property float view_pz
property float x_axisx
property float x_axisy
property float x_axisz
property float y_axisx
property float y_axisy
property float y_axisz
property float z_axisx
property float z_axisy
property float z_axisz
property float focal
property float scalex
property float scaley
property float centerx
property float centery
property int viewportx
property int viewporty
property float k1
property float k2
end_header
-0.52448046 -0.075808473 1.722494
-0.51476175 -0.073752016 1.7289941
-0.50729513 -0.073696956 1.7274941
-0.46764028 -0.073770374 1.7279942
-0.64242643 -0.068537042 1.7199938
-0.63777035 -0.068540692 1.7199938
-0.62201691 -0.068614118 1.7214938
-0.61449492 -0.068560421 1.7199939
-0.57493669 -0.068598852 1.7199941
-0.56518304 -0.067084499 1.7209941
-0.55576563 -0.065901913 1.7225944
-0.54267573 -0.063975178 1.7209944
-0.52170861 -0.066349387 1.7209944
-0.51486748 -0.068726547 1.7214942
-0.50504851 -0.066036567 1.7245944
-0.49603981 -0.064326905 1.7289945
-0.45279932 -0.068943888 1.7249944
-0.57441622 -0.055536445 1.7225946
-0.56522536 -0.057444021 1.7229946
-0.55461621 -0.056572232 1.7247945
-0.54420823 -0.054728422 1.7258279
-0.53557104 -0.055701617 1.7265946
-0.5256238 -0.054753449 1.7261614
-0.51603544 -0.055629339 1.7237947
-0.50566435 -0.056169871 1.7275661
-0.49604493 -0.059602071 1.7289946
-0.4392823 -0.054869413 1.726995
-0.57379031 -0.046393216 1.7234949
-0.56637317 -0.045285303 1.7257448
-0.55512333 -0.045235783 1.7234393
-0.54363954 -0.042903729 1.7239949
-0.53549922 -0.042157639 1.7253286
-0.52581209 -0.042986821 1.726745
-0.51517159 -0.044335213 1.7239952
-0.50786102 -0.04378156 1.7266618
-0.56676114 -0.034199961 1.7209952
-0.55434138 -0.03577207 1.7209952
-0.54466552 -0.032994226 1.7227952
-0.53338397 -0.033435665 1.7209953
-0.52436942 -0.033459771 1.7219954
-0.51495576 -0.033078272 1.7263955
-0.68477327 -0.023983501 1.7209951
-0.65485281 -0.024007851 1.7219952
-0.55550891 -0.02519998 1.7209954
-0.54416585 -0.023562716 1.7211955
-0.52452493 -0.0240575 1.7224957
-0.51647103 -0.024121257 1.7267457
-0.50455803 -0.024116965 1.7259955
-0.68517244 -0.016958088 1.7219954
-0.65369666 -0.013824039 1.7209955
-0.56333619 -0.016964134 1.7199956
-0.55635577 -0.014617914 1.7199957
-0.54487836 -0.014625292 1.7204958
-0.53271812 -0.013850461 1.7213292
-0.52521425 -0.014664842 1.7247459
-0.51544362 -0.014223766 1.7279959
-0.5074873 -0.017060107 1.727996
-0.65214431 -0.0052220142 1.7209958
-0.64748538 -0.0028758461 1.7209959
-0.60056531 -0.002875841 1.719996
-0.59160262 -0.0028779316 1.720996
-0.58262908 -0.0028800357 1.7219962
-0.57486618 -0.0044453396 1.7219961
-0.56431824 -0.0028825728 1.7229961
-0.5541268 -0.0057038898 1.7231963
-0.54365587 -0.0052359039 1.7239962
-0.53455496 -0.0052393721 1.7247462
-0.52605426 -0.0052510528 1.7274961
-0.65521419 0.0049575102 1.7249961
-0.64587724 0.0033901003 1.724996
-0.63711041 0.0049512712 1.7223295
-0.60073978 0.0041654501 1.7204962
-0.59349817 0.0049519325 1.7219963
-0.5854665 0.0041736057 1.7234962
-0.57564145 0.0046536708 1.7261964
-0.56573755 0.0018256333 1.7273296
-0.55459011 0.0018276836 1.7289964
-0.54289252 0.0018280398 1.7289964
-0.53571856 0.001827746 1.7284964
-0.52635908 0.0018280409 1.7284964
-0.65394306 0.012406785 1.7257464
-0.64413303 0.013579402 1.7244964
-0.63890922 0.01356907 1.7229964
-0.60056448 0.011202978 1.7199965
-0.59444559 0.013568361 1.7224964
-0.58648503 0.013605017 1.7264966
-0.57781219 0.011262326 1.7284966
-0.64319789 0.020601489 1.7219967
-0.59263086 0.020639293 1.7239968
-0.5853802 0.022980826 1.7232469
-0.57981241 0.023042187 1.7274969
0.21841237 0.025563348 1.7279996
0.22479425 0.023113063 1.7224995
0.23483373 0.023172269 1.7269995
-0.62168962 0.039509919 1.7269973
-0.61092675 0.037073269 1.7229972
-0.6062637 0.039425939 1.7229973
-0.59124762 0.039365206 1.7199973
-0.58652323 0.031628452 1.7243304
-0.57621819 0.033650558 1.7272472
-0.56807727 0.036355145 1.7249973
-0.5549807 0.037885532 1.7229975
0.20688218 0.038133305 1.7239999
0.2154153 0.030221704 1.7229997
0.24307203 0.034962006 1.7239999
-0.56626916 0.046667393 1.7289977
0.19941145 0.046909992 1.7275002
0.20585188 0.046757489 1.7220002
0.24563707 0.044319555 1.7200001
0.2513572 0.049236231 1.7270005
-0.59528786 0.053598218 1.7249979
-0.58595037 0.055963248 1.724998
-0.56478781 0.05595465 1.7244979
0.18999083 0.058795169 1.7280004
0.19672339 0.056309335 1.7247504
0.20325398 0.053790651 1.7200003
0.25091517 0.056247354 1.7240006
-0.58458877 0.065223023 1.7209982
-0.57928312 0.063062772 1.7259982
0.16619869 0.068263479 1.7270007
0.17307852 0.065797344 1.7247506
0.18516065 0.065884091 1.7271672
0.19646029 0.065697379 1.7225007
0.25047034 0.065594457 1.7210009
-0.2844342 0.077720717 1.7289995
-0.27472198 0.077657029 1.7273329
-0.26271904 0.077610776 1.7259996
-0.25313473 0.077576436 1.7249995
-0.24295922 0.076021165 1.7253329
-0.23419172 0.077574305 1.7244997
-0.22424842 0.07610134 1.7266665
-0.21559361 0.075323746 1.7267498
-0.20610581 0.075322017 1.7264997
-0.1967583 0.075374812 1.7274997
0.15653571 0.077666938 1.7250009
0.16346759 0.075213358 1.723251
0.17500721 0.072724998 1.7205008
0.18712413 0.072842322 1.7235008
0.19381435 0.072688647 1.7200009
0.24575159 0.077404343 1.7210013
0.25060642 0.075083286 1.7220012
-0.30330265 0.087176777 1.7289997
-0.29498363 0.085473225 1.7263331
-0.28657603 0.083744697 1.7229997
-0.27689463 0.083676472 1.721333
-0.2676447 0.083735995 1.722333
-0.25489503 0.082115151 1.7209997
-0.24224918 0.083670937 1.7203332
-0.23387803 0.084561504 1.72225
-0.22480984 0.084708728 1.725
-0.21549264 0.082398191 1.726
-0.20621842 0.082479388 1.7275
0.14565377 0.085668758 1.7270012
0.15307792 0.083823338 1.7216679
0.20322585 0.086844966 1.7200013
0.21512979 0.084521167 1.7210014
0.22376701 0.08529982 1.7210014
0.23403631 0.086886652 1.7215015
0.24426866 0.085310034 1.7216681
0.25103515 0.082311295 1.7250013
-0.32140875 0.096401751 1.7249999
-0.31444222 0.094071791 1.7255
-0.30450773 0.091567121 1.7225
-0.29232794 0.091451414 1.7199999
-0.2622357 0.096378535 1.7230002
-0.25303978 0.094115324 1.7245002
-0.24361128 0.091757715 1.7245001
-0.23715286 0.092005923 1.7290001
0.13766901 0.094313473 1.7260014
0.14443907 0.091728941 1.7220014
0.15135187 0.091616586 1.7200013
0.2066015 0.09324576 1.7220017
0.21543238 0.094104081 1.7235016
0.22503236 0.094161279 1.7247516
0.23471312 0.09187571 1.7265016
-0.35020536 0.10598744 1.7280002
-0.34294915 0.10357255 1.7270001
-0.33517665 0.1025767 1.7233335
-0.32553703 0.10094426 1.7220001
-0.28307837 0.10567159 1.7210004
-0.27572626 0.10429371 1.7240003
-0.26747715 0.10366913 1.7265004
0.12648341 0.10449274 1.724335
0.13261794 0.10119631 1.7220017
0.20815961 0.10347772 1.7220019
0.21604867 0.10149056 1.7285019
-0.35698664 0.1153492 1.7267504
-0.34917879 0.11275343 1.7230004
-0.28290612 0.11032464 1.7200005
-0.27609938 0.11043258 1.7215006
-0.26559842 0.11247155 1.7236006
-0.25745702 0.11762553 1.7227509
0.12315422 0.11302491 1.722002
0.20802292 0.11522441 1.7210022
-0.36498022 0.12589294 1.7257508
-0.25057191 0.12008832 1.7240009
-0.24385263 0.1202741 1.726501
-0.23444963 0.12573975 1.7234012
-0.22471885 0.12727651 1.7247512
-0.21642871 0.12829521 1.7276679
0.10685619 0.12753269 1.7262524
0.1167018 0.1259796 1.7246025
0.12323888 0.1249378 1.7233356
0.19869104 0.12947556 1.7220027
0.20591986 0.12719867 1.7232527
-0.37311971 0.13648278 1.7255011
-0.36767739 0.13621636 1.7220011
-0.2501021 0.13874885 1.7210015
-0.24329451 0.13654408 1.7227515
-0.23437777 0.13685732 1.7265015
-0.22519736 0.13466246 1.7285016
-0.21816359 0.13471341 1.7290015
0.097806916 0.13554397 1.7256025
0.10573702 0.13580915 1.7210026
0.18688573 0.13893887 1.722003
0.19666438 0.13680433 1.725003
0.20552698 0.13613048 1.7266697
-0.36808181 0.14581297 1.7240014
-0.24320595 0.14594306 1.7222518
-0.23425952 0.1462571 1.7257519
-0.2273387 0.14874342 1.7270019
0.073728047 0.14903146 1.728003
0.085423291 0.14873545 1.7246696
0.094774149 0.14380057 1.7223362
0.10409305 0.14595725 1.7200029
0.17497452 0.1459555 1.7210032
0.18584415 0.14680378 1.7256031
0.19705209 0.14418805 1.7285032
-0.36514658 0.15455292 1.7250016
-0.23360068 0.15292937 1.721002
-0.22457334 0.15321435 1.7240021
-0.21513394 0.15559046 1.7240022
-0.20668074 0.15654722 1.7256688
-0.19918677 0.15844563 1.7290024
0.064933054 0.15672523 1.7256699
0.073511496 0.15332809 1.723003
0.082091331 0.15471672 1.7210031
0.16414358 0.15637833 1.7230034
0.17224759 0.15500352 1.7253367
0.18261905 0.15351175 1.7265034
-0.36334753 0.16232525 1.7240019
-0.35844064 0.16460265 1.723002
-0.19595475 0.16248098 1.7215024
-0.18593572 0.16424446 1.7233359
-0.17604722 0.16570124 1.7252026
0.038137913 0.16811085 1.7290034
0.045250595 0.16805919 1.7285035
0.055532932 0.16645683 1.7283368
0.063212797 0.16426854 1.7220033
0.13711092 0.16714822 1.7200036
0.14427127 0.16723546 1.7210037
0.1545596 0.16571161 1.7216704
0.16338965 0.16508681 1.7235037
0.17092292 0.16313869 1.7280036
-0.35373062 0.17168096 1.7230022
-0.34627891 0.17620802 1.7210023
-0.17168574 0.17364922 1.7226695
-0.16346098 0.1749135 1.727253
-0.15409938 0.17742567 1.7285031
0.027034946 0.17591503 1.7280035
0.035698071 0.17491858 1.7260035
0.045194183 0.1749658 1.7265036
0.054645494 0.17485948 1.7255037
0.061577722 0.17434931 1.7205036
0.1041223 0.1767226 1.7210039
0.12616462 0.1751242 1.7210039
0.13509388 0.17468314 1.7245039
0.14453234 0.17464323 1.7242539
0.15388164 0.17213875 1.7230039
-0.34392071 0.18092084 1.7210026
-0.3349207 0.18586992 1.7230027
-0.32308763 0.1858504 1.7225027
-0.31558651 0.18560107 1.7200028
-0.16417705 0.18269186 1.7225032
-0.15375325 0.18412906 1.7247533
-0.14676724 0.18427354 1.7260033
-0.0046061901 0.18665045 1.7250037
0.0048743449 0.18675855 1.726004
0.016739296 0.1868653 1.7270038
0.026206225 0.18436189 1.7257538
0.035633713 0.18406458 1.7230039
0.045136489 0.18422118 1.7245039
0.054545552 0.18400234 1.7225039
0.097056448 0.18621911 1.7215041
0.10656528 0.18631661 1.7225041
0.11598581 0.18625091 1.7220042
0.12553146 0.18401329 1.7232541
0.13543701 0.1822437 1.7290041
-0.33342814 0.19108571 1.7275029
-0.32410616 0.1911691 1.7280029
-0.31459326 0.19114155 1.7275029
-0.30455506 0.19078162 1.7240028
-0.2968092 0.19035921 1.7200029
-0.2859754 0.19572093 1.7255032
-0.27834243 0.19534382 1.7220032
-0.15567666 0.19068751 1.7200034
-0.14409471 0.19098413 1.7225035
-0.1346402 0.19571756 1.7225037
-0.12559175 0.19635636 1.7280037
-0.11380745 0.19648619 1.7290038
-0.10653605 0.19621114 1.7265037
-0.097088635 0.19627909 1.7270038
-0.085187458 0.19617793 1.726004
-0.075843371 0.19652778 1.7290039
-0.0046044802 0.19368741 1.724504
0.004858959 0.19334906 1.721504
0.016694326 0.19345991 1.7225041
0.026158528 0.19348462 1.7227541
0.035614699 0.19342574 1.722254
0.045099936 0.19353357 1.7232541
0.054517645 0.19336039 1.7217543
0.061546881 0.19315949 1.7200042
0.08987809 0.19549125 1.7200043
0.097162098 0.19352062 1.7235043
0.10678908 0.1938193 1.7262543
0.11615013 0.19124676 1.7245044
-0.26472896 0.20205553 1.7253369
-0.2549485 0.2049489 1.7230035
-0.24528764 0.20634721 1.721337
-0.23568778 0.20934775 1.7200037
-0.1038303 0.20030397 1.7210039
-0.095919497 0.20180616 1.7203374
-0.083609745 0.2044356 1.7215756
-0.07372155 0.20446137 1.7240043
-0.066264771 0.20577157 1.7270043
-0.044912133 0.2057264 1.7265042
-0.0069843912 0.20346195 1.7272544
0.0048649758 0.20304246 1.7236711
0.01715276 0.20418783 1.7214043
0.026116395 0.2049803 1.7201711
0.035593119 0.20513555 1.7215044
0.0450687 0.20286115 1.7222545
0.054511525 0.20279723 1.7217546
0.063174963 0.20356788 1.7216711
0.072656967 0.20363951 1.722338
0.085218601 0.20509996 1.7215046
0.096408412 0.2022759 1.7243379
0.10427621 0.20065276 1.7240046
-0.25095373 0.21028326 1.7280037
-0.2462313 0.21029608 1.7280037
-0.23204693 0.21506068 1.7280039
-0.22666381 0.21445087 1.7230039
-0.21275942 0.21945457 1.7250041
-0.2050831 0.21883601 1.7200041
-0.084988594 0.21701036 1.7225044
-0.072758183 0.21577108 1.7238045
-0.063731618 0.2147128 1.7228377
-0.05482718 0.21409485 1.7254046
-0.044410754 0.21412849 1.7256047
-0.035914063 0.21621966 1.7272047
-0.025981816 0.21550435 1.7290046
-0.0164635 0.21519241 1.7265046
-0.0069736666 0.21505208 1.725338
0.0048779733 0.21297677 1.7276714
0.015932815 0.21355832 1.7260048
0.026966617 0.21649897 1.7243382
0.036463961 0.21666127 1.7256714
0.045119908 0.21493745 1.7245048
0.05460652 0.21499196 1.7250048
0.064134546 0.21280971 1.7265048
0.073591575 0.21273856 1.726005
-0.19352768 0.22382939 1.7220044
-0.18640271 0.2237808 1.7215044
-0.1756656 0.22677767 1.7226046
-0.16291136 0.22867432 1.7225046
-0.15338452 0.22856055 1.7215047
-0.12731932 0.22840831 1.7200047
-0.082549199 0.22389214 1.7210047
-0.072315529 0.22547179 1.7210047
-0.063734919 0.22656237 1.7232548
-0.054413971 0.22239746 1.7275047
-0.044954836 0.22253367 1.7285048
-0.035422098 0.22700714 1.726505
-0.025955856 0.224774 1.727505
-0.01646414 0.22708076 1.727005
-0.0069858539 0.22491214 1.728505
0.0039306046 0.22208601 1.728605
0.016745014 0.22017799 1.7285049
0.023858394 0.2201125 1.7280049
0.036516186 0.22488175 1.7283385
0.045144662 0.22690307 1.7257552
0.054599419 0.22443759 1.7250051
0.064204432 0.2201533 1.7285051
-0.16323325 0.2338603 1.7260047
-0.15301335 0.2355027 1.7263383
-0.1440396 0.23581614 1.7227548
-0.1346155 0.23586667 1.7230048
-0.12514967 0.23584765 1.722755
-0.11565252 0.23576115 1.722005
-0.10614071 0.23799114 1.7210051
-0.095933847 0.23648261 1.7213385
-0.083953075 0.23613724 1.7210051
-0.073145486 0.23584975 1.7222551
-0.066180959 0.23630179 1.7255051
-0.03309539 0.23443568 1.7290052
-0.025937099 0.2340996 1.7265052
0.019120844 0.23444064 1.7290053
0.027026068 0.23596922 1.7286721
0.035723343 0.23436667 1.7285055
-0.13254772 0.24350251 1.7270051
-0.12530087 0.24323289 1.7250051
-0.11597214 0.24589321 1.7270052
-0.10645386 0.24580194 1.7262553
-0.096929222 0.24567221 1.7252554
-0.085181735 0.24593636 1.7270054
-0.074142285 0.24520655 1.7273388
-0.094703101 0.25315353 1.7280056
-0.60644221 -0.092943057 1.7369933
-0.5926373 -0.092636839 1.7309933
-0.63282853 -0.085557856 1.7319934
-0.62546939 -0.085243478 1.7349933
-0.61350656 -0.083458982 1.7369936
-0.60487968 -0.085616842 1.7324935
-0.5993228 -0.087854974 1.7299935
-0.58679992 -0.084550865 1.7344935
-0.54534757 -0.083543524 1.7369938
-0.53001767 -0.083370358 1.7329937
-0.62544143 -0.07843478 1.7309937
-0.61841601 -0.078441754 1.7309936
-0.5826233 -0.078709573 1.7359937
-0.57859176 -0.078805842 1.7379937
-0.5641579 -0.078777477 1.7369938
-0.5572027 -0.078465559 1.7299939
-0.52268833 -0.076237753 1.731994
-0.51243305 -0.078844629 1.736994
-0.50508785 -0.076437265 1.7359941
-0.48454934 -0.075377129 1.7382441
-0.47423887 -0.074063219 1.7349943
-0.50158721 -0.069165803 1.7319944
-0.49414897 -0.067651778 1.7333277
-0.48530328 -0.066840328 1.7324945
-0.47568029 -0.066542111 1.7367944
-0.46530688 -0.06702669 1.7367444
-0.45817268 -0.067023195 1.7364944
-0.53382033 -0.050148427 1.7299949
-0.50380659 -0.050218355 1.7314949
-0.49415249 -0.054032102 1.7321948
-0.48564231 -0.055035014 1.7336615
-0.47622836 -0.055841401 1.7372806
-0.46416283 -0.054496933 1.7346199
-0.45478821 -0.053990789 1.7369949
-0.53382409 -0.0454235 1.729995
-0.50317627 -0.04234536 1.731995
-0.49528944 -0.043203771 1.734495
-0.48506087 -0.043738712 1.7365953
-0.47273505 -0.043308575 1.7379951
-0.46499413 -0.043250371 1.7354952
-0.45457852 -0.044105522 1.7376618
-0.51070505 -0.036008745 1.7309953
-0.50440264 -0.033697374 1.7334954
-0.49443924 -0.033664037 1.7314955
-0.48645216 -0.033765737 1.7364954
-0.4728784 -0.033813413 1.7384956
-0.46679586 -0.032983519 1.7363288
-0.49487174 -0.024219148 1.7329956
-0.48639005 -0.024268428 1.7362458
-0.47247225 -0.026660338 1.7369956
-0.50367659 -0.013956873 1.7336627
-0.4953751 -0.014760777 1.734746
-0.48583311 -0.014758313 1.7342461
-0.47954142 -0.014782667 1.7369959
-0.52009118 -0.0028984845 1.7309963
-0.51523483 -0.0057421178 1.7335962
-0.50474364 -0.0044944258 1.7373295
-0.49559271 -0.0052786889 1.7354963
-0.48604298 -0.0076503186 1.7349963
-0.47981894 -0.0076646265 1.7379962
-0.65124744 0.006547384 1.7309961
-0.56459779 0.0065552378 1.7309965
-0.55507171 0.0065543531 1.7304965
-0.54508042 0.0053809853 1.7322464
-0.53303564 0.0065738177 1.7349966
-0.52285951 0.0049976232 1.7349966
-0.51733923 0.0042120321 1.7374965
-0.50503331 0.00500724 1.7383299
-0.49865854 0.0018387511 1.7379965
-0.65124631 0.015987642 1.7309965
-0.5809893 0.016002674 1.7309966
-0.57384557 0.014447036 1.7329967
-0.56582004 0.013675706 1.7347466
-0.55478072 0.01414497 1.7339966
-0.5448764 0.011313003 1.73533
-0.53395522 0.011332537 1.7379968
-0.51307559 0.011343175 1.7389967
-0.5751999 0.023141488 1.7347468
-0.56014717 0.02083038 1.7389969
0.21479297 0.02569773 1.7369995
0.22353274 0.020853031 1.7309994
0.23815903 0.020885099 1.7339995
0.2434624 0.025702795 1.7379996
-0.62493169 0.034980319 1.7359971
-0.61916143 0.037287124 1.7329972
-0.58441579 0.037333585 1.7342473
-0.57227814 0.030215273 1.7329971
-0.56671166 0.030296931 1.7374972
-0.55682272 0.035020929 1.7359973
0.19981916 0.039876211 1.7309999
0.20494412 0.032804269 1.7342497
0.24785706 0.032807712 1.7354999
-0.58399242 0.047613729 1.7353311
-0.57394892 0.046715513 1.7309977
-0.56224036 0.04672613 1.7309978
-0.55884635 0.044467706 1.7349976
0.18643929 0.049619917 1.7390002
0.19361924 0.045685742 1.735
0.25208807 0.044625357 1.7320002
-0.58364344 0.056192636 1.731998
-0.57427704 0.053834178 1.7319978
-0.56401908 0.056353256 1.7364979
-0.19093333 0.059169106 1.7389992
-0.18372934 0.059156813 1.7384993
-0.17414631 0.059145838 1.7379993
-0.16451663 0.059117593 1.7369993
-0.15507652 0.059157051 1.7379993
-0.145579 0.059179228 1.7384994
-0.13607617 0.056811973 1.7389994
0.17490609 0.057452064 1.7350005
0.1833359 0.056563094 1.7322503
0.19032371 0.054143317 1.7310003
0.25785172 0.059118245 1.7390007
-0.57324493 0.063436843 1.7359982
-0.56920266 0.063514464 1.7379981
-0.2811783 0.068597585 1.7379992
-0.27397752 0.068585232 1.7374992
-0.26447904 0.068594866 1.7374994
-0.25497836 0.068604276 1.7374994
-0.24519295 0.068534516 1.7354994
-0.23556048 0.068503946 1.7344995
-0.22600009 0.068492815 1.7339995
-0.21656811 0.068520896 1.7344996
-0.20474805 0.06616468 1.7349994
-0.19408886 0.066580668 1.7331995
-0.18316923 0.066117406 1.7332495
-0.17381562 0.066182695 1.7347496
-0.16432275 0.066197611 1.7349997
-0.15507227 0.06631878 1.7379996
-0.14551255 0.066315368 1.7377496
0.16440226 0.066120677 1.7330006
0.25740045 0.066159807 1.7360009
-0.29303503 0.075732134 1.7379996
-0.28509742 0.07473202 1.7329996
-0.27326214 0.0731612 1.7329994
-0.263942 0.073213652 1.7339995
-0.25431514 0.073181473 1.7329994
-0.24677676 0.073062241 1.7299995
-0.23494412 0.073074095 1.7299997
-0.22784223 0.073081017 1.7299997
-0.19004229 0.075533576 1.7309997
-0.18318795 0.075649247 1.7334998
-0.17405839 0.075820811 1.7372499
-0.16455528 0.073452055 1.7374998
0.14826331 0.07830371 1.7390009
0.15412167 0.074867211 1.7333343
0.25687188 0.075533576 1.7325011
-0.33332521 0.085207202 1.7379997
-0.32675743 0.085943229 1.7366662
-0.31552291 0.085908383 1.7356664
-0.30745536 0.084284648 1.7346663
-0.29910833 0.08258649 1.7319996
-0.21611048 0.087387435 1.7310002
-0.20480494 0.087635554 1.7356668
-0.1948892 0.082705654 1.7319999
-0.18355031 0.082955301 1.7370001
0.13863166 0.087813035 1.7380011
0.14340512 0.083035909 1.738001
0.25530165 0.085310861 1.7380016
-0.34396511 0.095396049 1.7359998
-0.33514923 0.094575286 1.7352499
-0.32617944 0.093711622 1.7336665
-0.31781363 0.092001088 1.7309998
-0.24466394 0.096907571 1.7320004
-0.23553464 0.094683938 1.7345003
-0.22616875 0.092366017 1.7355002
0.12915742 0.097422943 1.7390015
0.13354777 0.094752714 1.7340014
0.23321916 0.096978821 1.7330017
0.24284813 0.092265718 1.7340016
-0.36128068 0.10646062 1.7360002
-0.3549155 0.10327988 1.7356668
-0.34630686 0.10149796 1.7320001
-0.26108009 0.10394922 1.7310004
-0.25456727 0.1041998 1.7350005
-0.24634086 0.10520743 1.7383338
0.11925779 0.1066742 1.7340018
0.12395062 0.10184998 1.7330016
0.21685974 0.1066322 1.735002
0.22346888 0.10162817 1.7310019
-0.37135351 0.11614716 1.7390004
-0.36428136 0.11274683 1.7353337
-0.25327665 0.11270496 1.7316673
-0.24585485 0.11451971 1.7350008
-0.23835422 0.11632048 1.7380009
0.10991786 0.11640531 1.737002
0.11681729 0.11376715 1.733252
0.21477845 0.11393957 1.7375022
-0.37340969 0.12529217 1.7340007
-0.36983913 0.12516022 1.7320007
-0.2325165 0.12053686 1.7300011
-0.22593503 0.12082651 1.734001
-0.21650706 0.12324955 1.7345011
-0.20705701 0.12568346 1.7350013
0.095600002 0.12595415 1.7370023
0.10379803 0.12219345 1.7345022
0.11422125 0.12068234 1.7300022
0.21433206 0.12321801 1.7340026
-0.38280642 0.13741356 1.737501
-0.3795765 0.13236043 1.733501
-0.22544971 0.13956238 1.7305017
-0.21537589 0.13811904 1.7320015
-0.20552438 0.13324001 1.7342016
-0.19701654 0.13222186 1.7373347
0.086100914 0.13557561 1.7380024
0.091803208 0.1339879 1.7330025
0.20943718 0.13979207 1.733003
0.21437901 0.13277596 1.7345028
-0.37471873 0.14656211 1.7330014
-0.22458352 0.14584646 1.7300019
-0.21614963 0.14682192 1.7320019
-0.20730603 0.14490663 1.7373352
0.066879071 0.14963955 1.735003
0.07479728 0.1432285 1.734336
0.083467349 0.1423187 1.7330027
-0.36975962 0.15832879 1.7320018
-0.20214272 0.15414651 1.7340021
-0.19343407 0.15732677 1.7340024
-0.18313646 0.1589324 1.7340024
-0.17393319 0.15922274 1.7370024
-0.16698492 0.1594172 1.7390025
0.045450542 0.1592637 1.736003
0.055720832 0.15748668 1.7340031
0.062109947 0.15440315 1.7350031
0.17586984 0.15857726 1.7300036
-0.1708553 0.16332778 1.7300026
-0.16390286 0.1658767 1.7317526
-0.15462926 0.16612999 1.7342527
-0.1477278 0.16878659 1.7370028
0.026380718 0.16889232 1.7370033
0.035086203 0.16548721 1.7346699
0.045331303 0.16360122 1.7315034
0.05245081 0.16355054 1.7310033
-0.36008525 0.17246446 1.7310022
-0.35556489 0.17731354 1.7320024
-0.15432902 0.17293802 1.731003
-0.14506111 0.1756006 1.7337531
-0.13814963 0.17588975 1.736503
0.0049021598 0.17832077 1.7360035
0.017629502 0.17679898 1.7366701
0.023926966 0.17315741 1.7320035
-0.35103798 0.1821681 1.7330025
-0.34610498 0.18681251 1.7320027
-0.1424045 0.18476185 1.7305033
-0.13647941 0.18611678 1.7356701
-0.033306461 0.18815874 1.7390038
-0.014173674 0.18783933 1.7360038
-0.0078026163 0.18434541 1.7330039
0.0048886877 0.18251856 1.7306703
0.016767878 0.18244693 1.7300038
-0.3328805 0.1968924 1.7370031
-0.32502985 0.19646065 1.733003
-0.31567192 0.19654571 1.733503
-0.30612993 0.19651696 1.7330031
-0.29641742 0.19637437 1.7315032
-0.13535093 0.19199644 1.7315036
-0.12863651 0.1926166 1.7370036
-0.11861974 0.19659351 1.7300038
-0.10486729 0.19275843 1.7380036
-0.092915796 0.19271632 1.7375036
-0.083207801 0.19233771 1.7340038
-0.073726907 0.19483435 1.7350038
-0.042781252 0.19734628 1.736004
-0.035624884 0.19494088 1.7357541
-0.026116341 0.19514108 1.7375039
-0.016558867 0.19497505 1.736004
-0.0093713691 0.19430387 1.7300041
-0.32377094 0.2019023 1.7390033
-0.31647646 0.20180795 1.7380034
-0.30717582 0.20195259 1.7390033
-0.2952292 0.20192954 1.7385033
-0.28296298 0.20167346 1.7360034
-0.27426046 0.20486908 1.7360035
-0.2658968 0.20611197 1.7330035
-0.064101428 0.20405334 1.7325041
-0.053827379 0.20498769 1.7336709
-0.045020148 0.20146184 1.7305042
-0.035562713 0.20413071 1.7330042
-0.026065577 0.20428041 1.7342542
-0.016518157 0.20401827 1.7320043
-0.033143893 0.21100993 1.7310045
-0.026005223 0.21095161 1.7305045
-0.054521531 0.22758737 1.7310048
-0.045800135 0.22833954 1.7306716
-0.0093672071 0.22984299 1.7300051
0.0060728057 0.22872564 1.7305051
0.016763508 0.22754011 1.7305051
0.026274614 0.22760247 1.7310053
0.033393227 0.2275333 1.7305052
-0.061712436 0.23733346 1.7330052
-0.053860772 0.23370105 1.7353384
-0.045143448 0.23537825 1.7360052
-0.035568789 0.23748626 1.7340053
-0.026003718 0.23944652 1.7310053
-0.017301453 0.23642856 1.7320052
-0.0062145661 0.23349524 1.7336719
0.0048891944 0.23735723 1.7330055
0.015973037 0.23787045 1.7310054
0.02390755 0.23958562 1.7320056
-0.13759944 0.24405774 1.7310052
-0.07113076 0.24888697 1.7310055
-0.064997822 0.24649304 1.7363387
-0.057151373 0.24053529 1.7390053
-0.045204863 0.24047443 1.7385054
-0.037992686 0.24013279 1.7360053
-0.026086701 0.24495825 1.7365055
-0.016555684 0.24503276 1.7370055
-0.0070213717 0.24272878 1.7375056
0.003945895 0.24696335 1.7372056
0.014405274 0.24446799 1.7330056
-0.082329169 0.25558347 1.7336724
-0.074432828 0.2556881 1.734339
-0.023733821 0.25006881 1.7390057
-0.62522352 -0.093271084 1.7434932
-0.58359641 -0.093459129 1.7459933
-0.57585168 -0.093361817 1.7439933
-0.62233579 -0.088442683 1.7419933
-0.61632681 -0.088603206 1.7449933
-0.58276647 -0.088567853 1.7434933
-0.57524431 -0.085800208 1.7449936
-0.56485099 -0.085444987 1.7439936
-0.55478555 -0.083894975 1.7444937
-0.54437411 -0.088902906 1.7489935
-0.53711754 -0.088887803 1.7484937
-0.52835685 -0.083858378 1.7429937
-0.5100531 -0.088748537 1.7449937
-0.50755054 -0.083960935 1.744494
-0.57235891 -0.078927748 1.7404938
-0.52364373 -0.079104461 1.7429938
-0.51951921 -0.079201646 1.7449939
-0.50447106 -0.079084635 1.741994
-0.49550301 -0.076000944 1.7436607
-0.45319372 -0.062569939 1.7444948
-0.4483344 -0.060175676 1.7439947
-0.45333129 -0.055432409 1.7449949
-0.44898432 -0.053099625 1.7464949
-0.48118478 -0.041045312 1.7429951
-0.47591311 -0.041001633 1.7409953
-0.46148121 -0.045747139 1.7399952
-0.45334369 -0.041113582 1.7449954
-0.44911933 -0.045943256 1.7469952
-0.48118955 -0.033897344 1.7429954
-0.47591639 -0.03624142 1.7409954
-0.4622854 -0.033906203 1.7429955
-0.45860612 -0.036378987 1.7469954
-0.48078036 -0.024344746 1.7414958
-0.4739697 -0.021980181 1.7424959
-0.46755338 -0.024398001 1.7449958
-0.47444767 -0.014846182 1.744246
-0.50895107 -0.0076740859 1.7409961
-0.49064767 -0.0029206839 1.7429963
-0.48425484 -0.0029253303 1.7454964
-0.47571582 -0.0061068973 1.7459965
-0.51425672 0.0042234743 1.7429965
-0.5089516 0.0018415123 1.7409965
-0.49600518 0.0042311922 1.7452466
-0.23756059 0.0066603059 1.7489974
-0.035928279 0.0066694813 1.7484982
-0.026320031 0.0066715013 1.7489982
-0.019105323 0.006671573 1.7489982
-0.54477054 0.01611889 1.7424967
-0.53518307 0.016116839 1.7419969
-0.52612984 0.013749349 1.7432467
-0.51557833 0.014946995 1.7434969
-0.50560588 0.01258387 1.745747
-0.49470526 0.011412354 1.7489969
-0.25430745 0.013859913 1.7489977
-0.24706037 0.013856676 1.7484977
-0.23505303 0.013857679 1.7481643
-0.052755933 0.013880787 1.7484983
-0.045493167 0.013865287 1.7464982
-0.035871245 0.01385936 1.7457484
-0.026295956 0.013875179 1.7474984
-0.019094309 0.013879967 1.7479985
0.22772625 0.016229156 1.7449993
0.23674069 0.016190039 1.7409995
0.24008395 0.011455438 1.7479991
-0.57119405 0.025647966 1.743997
-0.56590545 0.023247709 1.742247
-0.5556767 0.02249028 1.7446636
-0.54570836 0.020913668 1.745497
-0.53502864 0.020869184 1.741497
-0.52605265 0.020890476 1.7429969
-0.51735216 0.020923771 1.745497
-0.26386935 0.025858006 1.748998
-0.25585055 0.024255853 1.7486646
-0.24681099 0.023433166 1.746748
-0.23498161 0.023449596 1.7476647
-0.22235371 0.02266603 1.7486647
-0.21437103 0.024269359 1.7486649
-0.083997607 0.0258982 1.7484986
-0.074374706 0.023491252 1.7482486
-0.064791389 0.0235033 1.7489985
-0.05513563 0.023488455 1.7477487
-0.045492653 0.023472071 1.7464986
-0.035891391 0.023474973 1.7467486
-0.028708117 0.02108896 1.7479986
0.19451752 0.023454918 1.7472494
0.20326768 0.024248971 1.7469995
0.21565646 0.022607354 1.7439995
0.2473264 0.023457622 1.7484996
-0.59341526 0.039824974 1.7399974
-0.55735391 0.030433191 1.7449973
-0.28298444 0.035447467 1.7489983
-0.27475905 0.033819236 1.7473315
-0.2658776 0.033008698 1.7464982
-0.25621599 0.032999452 1.7457484
-0.24677087 0.033018388 1.7464983
-0.23489065 0.03303365 1.7469983
-0.22280742 0.033019494 1.7459984
-0.21336567 0.033043038 1.7469984
-0.20391114 0.033065077 1.7479984
-0.12005817 0.035514642 1.7489988
-0.11282079 0.03550633 1.7484988
-0.10317081 0.033090111 1.7477487
-0.093524732 0.03307822 1.7469988
-0.08391206 0.033075597 1.7467488
-0.074267089 0.033058956 1.745749
-0.064697683 0.033074178 1.7464988
-0.055101767 0.033080447 1.7467489
-0.045530487 0.03070149 1.7479988
-0.038320962 0.030702084 1.7479988
0.18751988 0.030688157 1.7489996
0.19431995 0.033022285 1.7454997
0.20120832 0.030578062 1.7429996
0.25413227 0.033004321 1.7459998
-0.59579968 0.044752218 1.7469976
-0.58870471 0.044576228 1.7399976
-0.56141967 0.049431115 1.7429978
-0.46780872 0.044822291 1.7459979
-0.30429208 0.049796559 1.7479986
-0.29466331 0.049789835 1.7474986
-0.2845313 0.045942068 1.7467985
-0.27515316 0.044941422 1.7448318
-0.26571691 0.044965379 1.7454985
-0.25607461 0.044952139 1.744832
-0.24619919 0.044897217 1.7424985
-0.23693484 0.044954997 1.7444987
-0.22497621 0.044960074 1.7443322
-0.2131364 0.04498557 1.7451655
-0.20386575 0.045056991 1.7476654
-0.19203721 0.049902257 1.748999
-0.17275694 0.049884073 1.747999
-0.16537812 0.047429536 1.745999
-0.15623978 0.045982584 1.745599
-0.14613032 0.047410261 1.7449989
-0.13600814 0.045952488 1.744199
-0.126921 0.045002546 1.7443326
-0.11484788 0.044969022 1.742888
-0.10293578 0.044999607 1.7438325
-0.093379445 0.045015588 1.7443324
-0.084343381 0.044097163 1.7457993
-0.074329898 0.0426962 1.7472491
-0.064687297 0.04267427 1.7462492
-0.055108409 0.040290076 1.746999
0.17771725 0.049853064 1.7470002
0.18464005 0.044982847 1.7445002
0.19143087 0.040110663 1.7409999
0.2568199 0.044899445 1.7426671
-0.57927829 0.058829512 1.7399981
-0.31144142 0.056978669 1.7479988
-0.30402553 0.056937031 1.7464988
-0.29402667 0.056855682 1.7437489
-0.28437835 0.056839976 1.7429988
-0.27481616 0.056839004 1.7427489
-0.26513785 0.056813747 1.741749
-0.25557661 0.05681444 1.7414989
-0.24597892 0.056806438 1.740999
-0.23689224 0.056919433 1.744249
-0.22514021 0.056975115 1.7456659
-0.21301757 0.056936946 1.7442491
-0.2035477 0.056967642 1.7449992
-0.19463336 0.056131721 1.7436658
-0.18447208 0.054600727 1.7454991
-0.17475173 0.054559428 1.7439991
-0.16489954 0.054470979 1.7409992
-0.15525754 0.054444768 1.7399993
-0.14570771 0.054449525 1.7399993
-0.13615438 0.056844514 1.7399994
-0.12674491 0.056913532 1.7419994
-0.11492596 0.056991603 1.7441661
-0.10314813 0.057104107 1.7474995
-0.093532182 0.057100315 1.7472495
-0.086418092 0.054754291 1.7489995
0.1656345 0.059423555 1.7460004
0.17272581 0.054592006 1.7450004
0.25800389 0.054377723 1.7400006
-0.58060557 0.063724324 1.7439982
-0.5751667 0.068687499 1.7489983
-0.56644851 0.063738212 1.7439982
-0.33068854 0.068978965 1.7489991
-0.32243371 0.067324236 1.7473325
-0.3126626 0.067283958 1.7459992
-0.30366802 0.066438697 1.7444991
-0.29393315 0.066402122 1.7432491
-0.28478318 0.065517008 1.7406658
-0.27437574 0.063910931 1.7399992
-0.26501709 0.063956626 1.7409991
-0.25542307 0.063947052 1.7404993
-0.24583241 0.063937232 1.7399993
-0.23651402 0.064000614 1.7414993
-0.22685206 0.063971944 1.7404993
-0.21500078 0.064000003 1.7409995
-0.13632454 0.066493087 1.7422497
-0.12701352 0.06663236 1.7457498
-0.11761162 0.064337961 1.7484996
0.15679081 0.067393519 1.7453341
0.16268006 0.064000681 1.7400006
-0.52335089 0.073226124 1.7419987
-0.34230167 0.076086171 1.7474992
-0.33458304 0.075964078 1.7444994
-0.32483804 0.07592202 1.7432494
-0.31422454 0.076376289 1.7423995
-0.30335301 0.075926647 1.7427495
-0.29626173 0.073558934 1.7429993
-0.16483584 0.078358933 1.7405
-0.1554887 0.076077074 1.74275
-0.14609267 0.076172307 1.74475
-0.1366519 0.073851489 1.7464998
0.1464646 0.076223716 1.7460009
-0.35667175 0.088061333 1.7479997
-0.34675622 0.085581355 1.7459996
-0.33884007 0.085395008 1.7419996
-0.32422471 0.082935892 1.7399997
-0.31947964 0.082942352 1.7399997
-0.19356965 0.087942086 1.7415003
-0.18444477 0.088153251 1.7455002
-0.17559314 0.08492969 1.7446667
-0.16549361 0.0834729 1.7475001
0.13699214 0.085895218 1.7475011
-0.36591697 0.095156327 1.7467499
-0.35589641 0.095035031 1.7442498
-0.34832197 0.092541471 1.7419999
-0.23402904 0.097426407 1.7410003
-0.22759509 0.097743072 1.7465003
-0.21537732 0.092849769 1.7443335
-0.20626092 0.093055576 1.7480003
0.12481249 0.09776248 1.7450016
0.23947141 0.097587839 1.7440019
0.24901889 0.092791408 1.7440017
-0.37265313 0.10699479 1.7450002
-0.36562788 0.10362351 1.7416668
-0.24340932 0.10213085 1.7400005
-0.23792052 0.10410657 1.746334
0.11738251 0.10474799 1.7415017
0.22758973 0.10481627 1.7445021
-0.3758074 0.11335546 1.7450002
-0.2433956 0.11167526 1.7400007
-0.23679768 0.11433131 1.7440008
-0.22757033 0.11690713 1.7465008
0.10314385 0.11684609 1.7435019
0.11042775 0.11214966 1.7450019
-0.38362485 0.12445862 1.7446673
-0.37629199 0.12096631 1.7400006
-0.21260938 0.12137035 1.7415012
-0.20354061 0.124052 1.7455013
-0.19675398 0.12671457 1.7490014
0.08655335 0.12668566 1.7470022
0.093567185 0.12403154 1.7435023
-0.38640302 0.13069256 1.7430007
-0.19123836 0.13341816 1.7425015
-0.18428186 0.13597623 1.7445016
0.076772846 0.13597193 1.7430024
0.083094746 0.13267487 1.7416692
0.22096308 0.13147491 1.7490028
-0.38140965 0.14492466 1.7420013
-0.20051694 0.14517191 1.7403352
-0.1936094 0.14297497 1.7425019
-0.18437828 0.14323509 1.7455019
-0.17755871 0.14353286 1.7490019
0.067228854 0.14562944 1.7440028
0.07194028 0.14067852 1.7420026
-0.37707913 0.15464312 1.7440016
-0.19278327 0.15171824 1.7423354
-0.18415152 0.15262944 1.7435023
-0.17564428 0.15366057 1.7460023
-0.16434637 0.15674877 1.744669
-0.15546422 0.15984729 1.7435025
0.038484305 0.15764807 1.744503
0.045661002 0.15281525 1.7440029
0.054429039 0.15195656 1.7433363
0.062434863 0.15041827 1.7440029
-0.14589785 0.1646364 1.7435027
-0.13724232 0.16798262 1.7450027
-0.12955764 0.16997837 1.7490029
0.016924117 0.16976921 1.7460033
0.026542142 0.16511929 1.7475032
0.03377701 0.16046055 1.7490031
-0.1336935 0.17630276 1.7405031
-0.12767792 0.17759818 1.7453364
-0.033454467 0.17699502 1.7465034
-0.026737994 0.17557001 1.7466033
-0.0046547879 0.17903964 1.7430035
0.0061267712 0.1732351 1.7447534
0.014484478 0.17405878 1.7410034
-0.13364518 0.18340652 1.7400033
-0.12664381 0.18603972 1.7422534
-0.11620231 0.18775952 1.7470033
-0.036607217 0.18554503 1.744337
-0.026200486 0.18620244 1.7430038
-0.017433563 0.18551381 1.7440038
-0.34295034 0.1924465 1.740003
-0.12408549 0.19295587 1.7400037
-0.11705916 0.19318716 1.7420037
-0.071593724 0.19312443 1.7410038
-0.067003243 0.19607094 1.7460039
-0.052678116 0.1987047 1.748004
-0.046183243 0.1951016 1.7443372
-0.3028537 0.20701893 1.7415035
-0.2945109 0.20571645 1.7436701
-0.28392726 0.20713463 1.7420036
-0.062061131 0.20278965 1.7420042
-0.057277843 0.20279299 1.7420042
-0.05404003 0.24403761 1.7413388
-0.045267589 0.24558343 1.7410054
-0.035730712 0.24572982 1.7420056
-0.071490981 0.25969693 1.7400059
-0.064361885 0.25505644 1.7407558
-0.054888632 0.25304678 1.7432556
-0.045398533 0.2534903 1.7462556
-0.0350173 0.25271118 1.7463392
-0.026988596 0.25391939 1.7436725
-0.015792839 0.25348514 1.7406725
-0.0078320336 0.25194895 1.7410059
-0.062050007 0.26015368 1.7430059
-0.054921366 0.26038352 1.7445059
-0.033447985 0.26091957 1.748006
-0.028634368 0.2607725 1.7470061
-0.62257963 -0.093948677 1.7559931
-0.61571658 -0.09363322 1.7499932
-0.56363189 -0.088926971 1.7499936
-0.55193412 -0.089353859 1.7579936
-0.5316844 -0.089178056 1.7539936
-0.52441323 -0.086770654 1.7534937
-0.51640558 -0.086631149 1.7504938
-0.50232691 -0.084284335 1.7509938
-0.49786669 -0.084339447 1.7519939
-0.50262052 -0.07954549 1.751994
-0.49787349 -0.079552062 1.751994
-0.45143694 -0.041376688 1.7559953
0.048504848 -0.041660815 1.758997
-0.46018416 -0.031709388 1.7529956
-0.45620483 -0.036569852 1.7559954
0.036388028 -0.034384295 1.7577471
0.045996454 -0.034339007 1.7554971
0.055706121 -0.034371212 1.7572472
0.063013919 -0.031986024 1.7589972
-0.4636206 -0.023728276 1.7539958
-0.45793736 -0.026923407 1.7534958
-0.21242669 -0.022285486 1.7589967
-0.20760779 -0.022286776 1.7589967
-0.16902962 -0.022296222 1.7589968
0.0098103546 -0.02231548 1.7589973
0.017066449 -0.022315336 1.7589974
0.027530516 -0.023912841 1.7579974
0.03633761 -0.024679266 1.7552475
0.046002787 -0.024685698 1.7557474
0.05563407 -0.02467471 1.7549975
0.065312617 -0.024685413 1.7557474
0.072644442 -0.022299141 1.7579976
-0.46619707 -0.016126743 1.7532461
-0.2411879 -0.012611812 1.7579969
-0.23390479 -0.012609419 1.757497
-0.22428171 -0.012610991 1.7574971
-0.21391281 -0.014225634 1.7579969
-0.20505407 -0.01503008 1.7577469
-0.19539186 -0.015031328 1.7574968
-0.18821935 -0.012620012 1.7579972
-0.17543074 -0.015847567 1.7586635
-0.16657087 -0.015042474 1.7584971
-0.14650634 -0.015855281 1.7589972
-0.13513751 -0.015040483 1.7576637
-0.12389859 -0.014239255 1.7579972
-0.11350147 -0.012635722 1.7589973
-0.10369001 -0.012618484 1.7564973
-0.094089605 -0.012626442 1.7574974
-0.085243315 -0.014239451 1.7576642
-0.053072829 -0.012639622 1.7589974
-0.048236452 -0.012639813 1.7589974
-0.016795807 -0.012640605 1.7589976
-0.0071168244 -0.012633474 1.7579978
0.0049673035 -0.015046012 1.7573309
0.017052727 -0.015046405 1.7574978
0.026714934 -0.015043708 1.7572477
0.036379442 -0.01504273 1.7572477
0.04606194 -0.015049142 1.7579978
0.055705708 -0.01504189 1.7572478
0.065321662 -0.015030251 1.7559978
0.074215434 -0.014233547 1.7569977
-0.4727487 -0.0053471429 1.7554964
-0.26057327 -0.0029598321 1.7589971
-0.25321311 -0.0029584151 1.7579972
-0.24338745 -0.0053680129 1.7564971
-0.2334391 -0.0053616641 1.7539972
-0.22396275 -0.0053647347 1.7549973
-0.21450236 -0.0053682132 1.7562472
-0.2047924 -0.0053675473 1.7554972
-0.1950862 -0.0053661698 1.7547473
-0.18573046 -0.0053744735 1.7572473
-0.17619337 -0.005378115 1.7582473
-0.16654919 -0.0053779511 1.7582473
-0.15681036 -0.0053760428 1.7572473
-0.14647898 -0.0045746546 1.758664
-0.13515069 -0.0053771464 1.7578309
-0.12305878 -0.0077928901 1.7574975
-0.11261145 -0.0061832331 1.7576643
-0.10368973 -0.0053735534 1.7564976
-0.094023392 -0.0053741233 1.7562475
-0.084382914 -0.0053755231 1.7564976
-0.074738242 -0.0053768931 1.7567476
-0.065061398 -0.0053762551 1.7562476
-0.05541293 -0.0053768773 1.7564977
-0.045746349 -0.0053759208 1.7562476
-0.036103655 -0.0053794021 1.7569978
-0.02645139 -0.005381478 1.7577478
-0.01677064 -0.0053762151 1.7562478
-0.0070999824 -0.0053698886 1.7537478
0.0049644196 -0.0053727822 1.7551645
0.016254898 -0.0061885593 1.7583314
0.02671784 -0.007796309 1.757498
0.037221696 -0.0061904071 1.758998
0.046055328 -0.0053805262 1.757748
0.055715002 -0.00537924 1.7574981
0.065377161 -0.0053790407 1.7574981
0.07496658 -0.0053737387 1.7557482
0.082356505 -0.0053832605 1.7589982
-0.49374396 0.006650378 1.7539966
-0.48619741 0.0042519188 1.7524966
-0.47798508 0.0034550361 1.75433
-0.27494758 0.0050851898 1.7586639
-0.26663172 0.0050792387 1.7566639
-0.25599384 0.0037866177 1.7539973
-0.24519436 0.0042649349 1.7522475
-0.23219721 0.0034619488 1.7506641
-0.22370759 0.0042683883 1.7529975
-0.21431988 0.0042734528 1.7547475
-0.20453033 0.0042710369 1.7532476
-0.19494763 0.0042724619 1.7534976
-0.18559943 0.0042782426 1.7559975
-0.1760685 0.0042817751 1.7569976
-0.16650119 0.0042843428 1.7577479
-0.15676647 0.0042830277 1.7567477
-0.14708138 0.0042808317 1.7562476
-0.13994993 0.0042837635 1.7574978
-0.11105445 0.0042871237 1.7584978
-0.10379343 0.0042877588 1.758248
-0.094051562 0.0042857816 1.756748
-0.084382936 0.0042836927 1.756498
-0.074749254 0.00428579 1.7569978
-0.065024376 0.0042814203 1.755248
-0.055317618 0.004276339 1.7534981
-0.045642857 0.0042717466 1.752248
-0.03602149 0.0018656389 1.7529981
-0.026380269 0.0018656777 1.7529981
-0.015926914 0.0034698504 1.7519982
-0.0070932237 0.0042747827 1.752248
0.0049691009 0.0042858142 1.756498
0.016257675 0.0050965603 1.7586648
0.026741356 0.0042906078 1.7589983
0.036394168 0.0042881146 1.7579983
0.046010524 0.0042838892 1.7559983
0.055715017 0.0042880559 1.7574985
0.065340668 0.0042848112 1.7564983
0.074965224 0.0042831749 1.7557484
0.082262889 0.0042850021 1.7569984
0.2246796 0.0066975635 1.758499
-0.50267315 0.016218998 1.751997
-0.49611706 0.016239498 1.7539971
-0.48487681 0.011462392 1.7563301
-0.28444827 0.016336732 1.7579978
-0.27685064 0.01390545 1.7554976
-0.26672077 0.0138805 1.7519976
-0.25923866 0.013866854 1.7499977
-0.22338744 0.0138769 1.7504978
-0.21386044 0.013882526 1.7509979
-0.20438313 0.013892727 1.7519978
-0.19478124 0.013893599 1.7519978
-0.1853603 0.01390857 1.7537479
-0.17599209 0.013930432 1.7562479
-0.16642962 0.013937378 1.7569979
-0.15685351 0.013944945 1.7577479
-0.1472694 0.013953128 1.7584981
-0.13607989 0.014427467 1.7573981
-0.12305938 0.016362844 1.7574983
-0.11332353 0.013937364 1.7562481
-0.10376335 0.013950803 1.7577484
-0.094064794 0.013946042 1.7569983
-0.084347486 0.013936562 1.7557482
-0.074653469 0.013928638 1.7547483
-0.064913563 0.01391015 1.7522484
-0.05761259 0.0138931 1.7499983
-0.014311684 0.013903757 1.7509985
-0.0070904572 0.013910354 1.7519984
0.0040053055 0.013469315 1.7573986
0.017055519 0.013957691 1.7579986
0.026695604 0.013941699 1.7559985
0.036369808 0.013947022 1.7567487
0.046050351 0.011536438 1.7574986
0.055745151 0.011542619 1.7584985
0.06620162 0.01315116 1.7579986
0.07497514 0.013940272 1.7559987
0.084678896 0.013947514 1.7569988
0.1954916 0.01633779 1.7559991
0.20497209 0.013910763 1.7547492
0.21449585 0.013907002 1.7539991
0.223092 0.013088219 1.7523326
0.23330618 0.011476099 1.7509992
0.24584657 0.016318157 1.7549994
-0.55421722 0.025743803 1.7499971
-0.54505563 0.025762506 1.7509971
-0.53396374 0.025804341 1.753497
-0.5243209 0.02580118 1.7529972
-0.51585722 0.023457492 1.756497
-0.50576603 0.021036586 1.7544972
-0.49877751 0.021045212 1.7549971
-0.29404855 0.025979508 1.757998
-0.28623694 0.023519663 1.7542479
-0.2762562 0.023489639 1.7517478
-0.26726186 0.022674782 1.7503313
-0.25923693 0.021071529 1.7499979
-0.22571653 0.02588639 1.7499982
-0.21134008 0.021085 1.7499981
-0.20420602 0.023496084 1.7504982
-0.19458361 0.023496397 1.7502482
-0.18530415 0.023539783 1.7532482
-0.1759147 0.023571303 1.7554982
-0.1662844 0.023574298 1.7554983
-0.15669465 0.023583189 1.7559983
-0.14802997 0.02441553 1.7579982
-0.13495584 0.023576228 1.7553315
-0.1229354 0.023584165 1.7557484
-0.1132097 0.023569401 1.7544985
-0.10348213 0.023550125 1.7529985
-0.093755558 0.023529088 1.7512486
-0.084094279 0.021114886 1.7504984
-0.064828463 0.023516754 1.7499986
-0.025556272 0.024345152 1.7516654
-0.016745118 0.023571633 1.7537488
-0.0071005258 0.02357851 1.7542487
0.0049667056 0.023604736 1.7563322
0.017044919 0.023610478 1.7567489
0.026691845 0.023598829 1.755749
0.036390096 0.02362382 1.757749
0.043669928 0.026057633 1.758999
0.05817917 0.021219641 1.7589989
0.066212706 0.024434492 1.7583325
0.074963279 0.023593863 1.755749
0.084713064 0.023619547 1.757749
0.11373714 0.026041416 1.7584993
0.12419125 0.024425333 1.7583327
0.13223884 0.024423769 1.7583325
0.14753728 0.023617378 1.7584993
0.15712251 0.023604278 1.7577492
0.16679321 0.023607153 1.7579994
0.17653617 0.023618177 1.7589993
0.18575606 0.023560191 1.7549994
0.20693246 0.021098318 1.7509993
0.21172939 0.021097092 1.7509993
0.25304317 0.023539595 1.7549996
-0.55410612 0.032197498 1.7546638
-0.32264757 0.035587717 1.7569982
-0.31554973 0.03319028 1.7574981
-0.30591375 0.033191022 1.757248
-0.29598266 0.033158325 1.7552482
-0.28666282 0.032302156 1.7519983
-0.27836746 0.030668819 1.7499981
-0.19466287 0.033126112 1.7509984
-0.1854597 0.03320083 1.7547486
-0.17593727 0.033222429 1.7557485
-0.16630571 0.033224992 1.7557485
-0.15653831 0.033199742 1.7542486
-0.1469297 0.033206351 1.7544987
-0.13712236 0.033166237 1.7522486
-0.1260373 0.032682408 1.7519987
-0.11295095 0.030735098 1.7504987
-0.045608189 0.03556883 1.750999
-0.035210416 0.033999529 1.7526658
-0.026420413 0.033255108 1.7557491
-0.016778952 0.033281844 1.757249
-0.0071132653 0.033277702 1.7569989
0.004966171 0.033269182 1.7564989
0.017042626 0.030852253 1.7564989
0.024322025 0.030895798 1.7589991
0.038832705 0.033313341 1.7589992
0.046075135 0.033302557 1.7584993
0.055711057 0.033282638 1.7574992
0.065339833 0.033263218 1.7564992
0.075048074 0.0332858 1.7577493
0.084722646 0.033288598 1.7579994
0.094329208 0.03568304 1.7569995
0.1047115 0.034043774 1.7556661
0.11350926 0.03322605 1.7549995
0.12316887 0.033229493 1.7552495
0.13221133 0.032473803 1.7579994
0.14491303 0.033236325 1.7559996
0.15682977 0.033204149 1.7544997
0.16655263 0.033220645 1.7554996
0.17640755 0.033259556 1.7577498
0.18470593 0.03396197 1.7526665
0.26223975 0.034026418 1.7576666
-0.55736762 0.042524647 1.7524976
-0.33260208 0.045266382 1.7589984
-0.32494771 0.042800397 1.7564983
-0.31464529 0.045109849 1.7524984
-0.30495048 0.04269566 1.7517484
-0.2952593 0.042684186 1.7509985
-0.28792375 0.040265728 1.7499985
-0.19522709 0.044205073 1.7517989
-0.18521796 0.045189019 1.7524989
-0.17615753 0.044248216 1.753199
-0.16594961 0.040374994 1.7519988
-0.15375528 0.040333621 1.7499988
-0.14663494 0.04035927 1.7509989
-0.13934591 0.040338781 1.7499989
-0.0816596 0.049976371 1.7499994
-0.0672298 0.049979713 1.7499994
-0.055250354 0.045209348 1.7514993
-0.045696486 0.042878788 1.7544993
-0.038539398 0.040545397 1.7579992
-0.024050737 0.040569581 1.7589992
-0.015976971 0.042150587 1.7576659
-0.0071165129 0.040547211 1.7579993
0.00013538836 0.040570319 1.7589993
0.038832061 0.040568434 1.7589995
0.046074376 0.040556137 1.7584995
0.055718042 0.042955071 1.7577496
0.065347299 0.042927738 1.7567496
0.075003676 0.042925254 1.7567496
0.084636733 0.042911015 1.7562495
0.094193339 0.042865012 1.7544998
0.10364377 0.042784933 1.7512497
0.11347644 0.042863194 1.7544997
0.12327069 0.042915445 1.7567497
0.13063639 0.042954721 1.7584999
0.1473418 0.042893436 1.7562499
0.15678234 0.042835146 1.7539998
0.16654971 0.042867757 1.7555
0.17627724 0.04288521 1.7565001
0.18313895 0.040390994 1.7529999
0.25979298 0.040328912 1.7520001
0.26541227 0.042863227 1.7575003
0.27014124 0.040438227 1.7570002
-0.58734643 0.054387216 1.7499979
-0.56560302 0.054593373 1.7559979
-0.51214164 0.054516539 1.7519981
-0.35406041 0.059692342 1.7584988
-0.34437978 0.059685085 1.7579988
-0.33394122 0.055772446 1.7559987
-0.3245669 0.054771159 1.7544986
-0.31684363 0.057087544 1.7514988
-0.083434269 0.058116242 1.7536663
-0.075114429 0.053967979 1.7543994
-0.065013357 0.05253927 1.7549995
-0.05540593 0.050167438 1.7564994
0.048502032 0.059911605 1.7590001
0.056188218 0.055988237 1.7574
0.065240189 0.054914303 1.7539999
0.074841164 0.054880738 1.753
0.084411964 0.054837361 1.7516668
0.094165795 0.054910634 1.7540002
